ply
format ascii 1.0
element vertex 1498
property float x
property float y
property float z
property uchar intensity
end_header
-0.157477 0.006927 0.020837 12
-0.157715 0.007241 0.020833 13
-0.158201 0.007568 0.020862 12
-0.157201 0.007823 0.020695 12
-0.149010 0.008015 0.019547 12
-0.152464 0.008495 0.019966 12
-0.152947 0.008816 0.019995 12
-0.150457 0.009016 0.019630 12
-0.148962 0.009201 0.019390 13
0.113455 -0.098009 -0.004703 12
0.114026 -0.098879 -0.004684 12
0.114217 -0.099424 -0.004650 12
0.114577 -0.100154 -0.004618 12
0.115328 -0.101196 -0.004605 12
0.115700 -0.101910 -0.004577 12
0.115508 -0.102130 -0.004526 12
0.115467 -0.102555 -0.004473 12
0.115274 -0.102775 -0.004422 12
0.114912 -0.102807 -0.004368 12
0.114904 -0.103192 -0.004324 12
0.114895 -0.103578 -0.004280 12
0.114515 -0.103628 -0.004222 12
0.114320 -0.103845 -0.004170 12
0.114124 -0.104062 -0.004119 12
0.114077 -0.104487 -0.004065 12
0.114082 -0.104853 -0.004025 12
0.113884 -0.105070 -0.003974 12
0.114053 -0.105625 -0.003935 12
0.114001 -0.106051 -0.003880 12
0.113801 -0.106268 -0.003828 12
0.113965 -0.106825 -0.003789 12
0.113946 -0.107213 -0.003743 12
0.113907 -0.107620 -0.003692 12
0.113704 -0.107836 -0.003640 12
0.113501 -0.108052 -0.003588 12
0.113658 -0.108613 -0.003547 12
0.113634 -0.109001 -0.003500 12
0.113609 -0.109390 -0.003453 12
0.113941 -0.110127 -0.003417 13
0.114272 -0.110865 -0.003380 12
0.114402 -0.111450 -0.003333 13
0.114192 -0.111667 -0.003279 12
0.113089 -0.111008 -0.003201 13
0.111455 -0.109819 -0.003108 13
0.111566 -0.110421 -0.003056 13
0.111180 -0.110456 -0.002999 13
0.109752 -0.109412 -0.002919 13
0.109545 -0.109620 -0.002867 13
0.109162 -0.109651 -0.002811 13
0.109659 -0.110568 -0.002777 13
0.111031 -0.112377 -0.002768 13
0.111517 -0.113302 -0.002742 13
0.111434 -0.113736 -0.002702 12
0.111733 -0.114492 -0.002697 12
0.112207 -0.115426 -0.002685 13
0.112180 -0.115802 -0.002656 13
0.111225 -0.115336 -0.002592 13
0.109275 -0.113744 -0.002501 13
0.108196 -0.113048 -0.002430 13
0.107810 -0.113073 -0.002375 13
0.107080 -0.112733 -0.002312 13
0.106695 -0.112754 -0.002256 13
0.106825 -0.113320 -0.002212 13
0.106440 -0.113340 -0.002156 13
0.106036 -0.113378 -0.002096 12
0.107185 -0.115042 -0.002071 12
0.107308 -0.115611 -0.002025 12
0.109730 -0.119162 -0.001967 12
0.110181 -0.120106 -0.001925 12
0.111303 -0.121791 -0.001893 12
0.111578 -0.122556 -0.001847 12
0.111850 -0.123323 -0.001800 12
0.111952 -0.123906 -0.001750 12
0.112220 -0.124675 -0.001702 12
0.112151 -0.125074 -0.001648 12
0.111727 -0.125119 -0.001585 12
0.111158 -0.124956 -0.001524 12
0.110590 -0.124793 -0.001464 12
0.109693 -0.124252 -0.001400 12
0.108776 -0.123728 -0.001332 12
0.108872 -0.124310 -0.001281 12
0.108966 -0.124892 -0.001229 11
0.108565 -0.124910 -0.001172 11
0.108166 -0.124926 -0.001115 11
0.106133 -0.123048 -0.001042 11
0.104435 -0.121542 -0.000975 11
0.103554 -0.120980 -0.000915 11
0.102636 -0.120450 -0.000847 11
0.102084 -0.120263 -0.000792 11
0.101555 -0.120057 -0.000742 11
0.101489 -0.120440 -0.000690 11
0.101219 -0.120667 -0.000628 11
0.101793 -0.121817 -0.000580 10
0.104364 -0.125858 -0.000488 10
0.102968 -0.124741 -0.000419 10
0.103526 -0.125902 -0.000368 10
-1.373156 -8.167565 1.083404 10
-1.388246 -8.161249 1.084784 10
-1.403027 -8.153196 1.085931 10
-1.418076 -8.146826 1.087300 10
-1.434318 -8.138935 1.088668 10
-1.449153 -8.131532 1.089894 10
-1.465231 -8.123068 1.089486 10
-1.480200 -8.116585 1.090828 10
-1.495238 -8.110562 1.092234 10
-1.509264 -8.099150 1.092912 10
-1.523569 -8.089421 1.093812 10
-1.537801 -8.079423 1.094672 10
-1.553781 -8.071054 1.095953 10
-1.568283 -8.062707 1.097031 10
-1.582898 -8.055064 1.098202 10
-1.597639 -8.048123 1.099467 10
-1.614478 -8.037149 1.100581 10
-1.629022 -8.029422 1.101734 10
-1.643988 -8.023856 1.103180 10
-1.657142 -8.016631 1.104195 10
-1.671675 -8.009071 1.105364 10
-1.685875 -8.000031 1.106325 10
-1.700103 -7.991208 1.107314 10
-1.714457 -7.983088 1.108397 10
-1.731730 -7.975021 1.109888 10
-1.746776 -7.970232 1.111431 10
-1.761548 -7.964205 1.112800 10
-1.776192 -7.957668 1.114096 10
-1.791771 -7.948837 1.115271 10
-1.806050 -7.940795 1.116352 10
-1.820799 -7.934902 1.117733 10
-1.835377 -7.928256 1.118999 10
-1.850916 -7.919552 1.120182 10
-1.865617 -7.913575 1.121547 10
-1.880528 -7.908535 1.123043 10
-1.894911 -7.901299 1.124227 10
-1.909504 -7.895002 1.125541 10
-1.923435 -7.886031 1.126473 10
-1.937166 -7.876313 1.127295 10
-1.951757 -7.870179 1.128628 10
-1.968012 -7.864852 1.130278 10
-1.982150 -7.856980 1.131358 10
-1.996331 -7.849322 1.132468 10
-2.010671 -7.842360 1.133675 10
-2.026176 -7.834277 1.134921 10
-2.041230 -7.830134 1.136534 10
-2.056147 -7.825484 1.138073 10
-2.070264 -7.817691 1.139122 10
-2.084455 -7.810356 1.140266 10
-2.098180 -7.801320 1.141161 10
-2.112133 -7.793218 1.142190 10
-2.126850 -7.787955 1.143635 10
-2.144465 -7.782592 1.145468 10
-2.158364 -7.774406 1.146480 10
-2.169950 -7.763261 1.146851 10
-2.184130 -7.756223 1.148027 10
-2.201002 -7.748349 1.149483 10
-2.214530 -7.739114 1.150330 10
-2.228585 -7.731758 1.151454 10
-2.243237 -7.726516 1.152892 10
-2.257744 -7.720770 1.154254 10
-2.272303 -7.715236 1.155648 10
-2.286221 -7.707538 1.156716 10
-2.299196 -7.701662 1.157853 10
-2.316407 -7.695198 1.159510 10
-2.329691 -7.685529 1.160276 10
-2.343020 -7.676074 1.161071 10
-2.357052 -7.668960 1.162219 10
-2.374402 -7.663078 1.163958 10
-2.389355 -7.658978 1.165562 10
-2.404083 -7.654141 1.167054 10
-2.415750 -7.644293 1.167577 10
-2.431013 -7.631916 1.168320 10
-2.445690 -7.626999 1.169796 10
-2.459595 -7.619701 1.170906 10
-2.473715 -7.613082 1.172120 10
-2.489166 -7.609439 1.173418 10
-2.502420 -7.600179 1.174214 10
-2.515484 -7.590430 1.174935 10
-3.064597 -7.380891 1.227192 10
-3.078051 -7.372937 1.228162 10
-3.093778 -7.363152 1.229246 10
-3.107093 -7.354918 1.230168 10
-3.118044 -7.344723 1.230550 10
-3.129769 -7.332808 1.230851 10
-3.141943 -7.322013 1.231337 10
-3.154876 -7.313012 1.232122 10
-3.166406 -7.300817 1.232366 10
-3.177412 -7.287471 1.232412 10
-3.196660 -7.279037 1.234115 10
-3.211181 -7.273785 1.235528 10
-3.226400 -7.270084 1.237206 10
-3.243355 -7.263373 1.238794 10
-3.257753 -7.257804 1.240156 10
-3.273167 -7.254455 1.241888 10
-3.288985 -7.251974 1.243781 10
-3.306421 -7.246242 1.245542 10
-3.319015 -7.240024 1.246584 10
-3.332862 -7.233184 1.247731 10
-3.346804 -7.226540 1.248912 10
-3.362944 -7.217985 1.250187 10
-3.375391 -7.208152 1.250815 10
-3.387073 -7.196735 1.251164 10
-3.398307 -7.184407 1.251353 10
-3.410866 -7.171670 1.251679 10
-3.423730 -7.162874 1.252476 10
-3.437326 -7.155611 1.253542 10
-3.443608 -7.142852 1.253002 10
-3.456302 -7.133775 1.253745 10
-3.466801 -7.126595 1.254393 11
-3.481517 -7.121693 1.255870 11
-3.496118 -7.116539 1.257304 11
-3.510276 -7.110470 1.258577 11
-3.525559 -7.103516 1.259909 10
-3.539146 -7.096285 1.260976 10
-3.552829 -7.089248 1.262078 10
-3.566832 -7.082846 1.263294 10
-3.584421 -7.077328 1.265099 10
-3.598844 -7.074814 1.266796 10
-3.614398 -7.071400 1.268550 10
-3.629615 -7.067293 1.270183 10
-3.647305 -7.061840 1.272009 10
-3.661039 -7.054815 1.273119 10
-3.675331 -7.048857 1.274422 10
-3.690187 -7.043965 1.275919 10
-3.706126 -7.035086 1.277130 10
-3.717426 -7.026435 1.277728 10
-3.729821 -7.016877 1.278377 10
-3.742893 -7.008604 1.279260 10
-3.754313 -6.997262 1.279581 10
-3.765236 -6.985034 1.279736 10
-3.778829 -6.977782 1.280802 10
-3.792174 -6.970070 1.281784 10
-3.808656 -6.962262 1.283187 10
-3.823991 -6.958170 1.284836 10
-3.836556 -6.951927 1.285871 10
-3.850689 -6.945616 1.287113 10
-3.872653 -6.947586 1.290336 10
-3.891123 -6.948954 1.293013 10
-3.905623 -6.943179 1.294364 10
-3.921208 -6.939308 1.296072 10
-3.936913 -6.932763 1.297506 10
-3.951271 -6.926679 1.298804 10
-3.964518 -6.918639 1.299735 10
-3.976272 -6.908008 1.300179 10
-3.991528 -6.898396 1.299807 10
-4.003854 -6.888786 1.300438 10
-4.015036 -6.877239 1.300705 10
-4.026562 -6.866313 1.301088 10
-4.039717 -6.852643 1.301395 10
-4.049927 -6.839555 1.301362 10
-4.060797 -6.830364 1.301843 10
-4.074362 -6.822966 1.302890 10
-4.092229 -6.822735 1.305308 10
-4.109220 -6.820981 1.307441 10
-4.123793 -6.815176 1.308800 10
-4.139258 -6.810817 1.310438 10
-4.158782 -6.807669 1.312767 10
-4.176442 -6.806807 1.315088 10
-4.190621 -6.800232 1.316308 10
-4.202949 -6.793332 1.317239 10
-4.219101 -6.784561 1.318492 10
-4.233118 -6.777689 1.319658 10
-4.245683 -6.768490 1.320370 10
-4.257835 -6.758641 1.320956 10
-4.269435 -6.745297 1.321085 10
-4.274260 -6.723959 1.319413 10
-4.285124 -6.712192 1.319613 10
-4.295693 -6.699993 1.319724 10
-4.304735 -6.682860 1.319089 10
-4.317779 -6.674569 1.319967 10
-4.327180 -6.660668 1.319733 10
-4.336948 -6.647376 1.319616 10
-4.351041 -6.635608 1.320259 10
-4.363319 -6.626198 1.320910 10
-4.375305 -6.616354 1.321473 10
-4.401880 -6.598071 1.323109 10
-4.958601 -6.235267 1.359561 10
-4.972978 -6.228410 1.360776 10
-4.990308 -6.220703 1.362304 10
-5.005597 -6.214927 1.363763 10
-5.021038 -6.209307 1.365259 10
-5.036632 -6.203842 1.366793 10
-5.061570 -6.207562 1.370609 10
-5.085452 -6.212110 1.374371 10
-5.109059 -6.216207 1.378045 10
-5.140230 -6.229360 1.383744 10
-5.171942 -6.240733 1.389324 10
-5.200733 -6.250654 1.394344 10
-5.231637 -6.262945 1.399911 10
-5.256592 -6.267965 1.403871 10
-5.272542 -6.262167 1.405416 10
-5.286262 -6.253698 1.406366 10
-5.297739 -6.242569 1.406717 10
-5.311062 -6.231798 1.405712 10
-5.324404 -6.220606 1.406290 10
-5.337587 -6.211461 1.407078 10
-5.347537 -6.198557 1.407014 10
-5.356651 -6.184707 1.406732 10
-5.370538 -6.174166 1.407464 10
-5.383806 -6.165110 1.408273 10
-5.399334 -6.158619 1.409671 10
-5.416485 -6.153942 1.411488 10
-5.435643 -6.147101 1.413345 10
-5.451816 -6.141226 1.414897 10
-5.470284 -6.137886 1.417040 10
-5.508324 -6.130081 1.421353 10
-5.526320 -6.126044 1.423355 10
-5.538864 -6.115935 1.423950 10
-5.551889 -6.106348 1.424667 10
-5.564233 -6.096005 1.425209 10
-5.575893 -6.084912 1.425575 10
-5.590869 -6.077422 1.426787 10
-5.605167 -6.069174 1.427824 10
-5.622009 -6.050741 1.428101 10
-5.635623 -6.039076 1.428221 10
-5.651649 -6.028360 1.429242 10
-5.667945 -6.020047 1.430564 10
-5.679650 -6.015377 1.431653 10
-5.695212 -6.008363 1.433016 10
-5.715014 -6.005773 1.435440 10
-5.733978 -6.002239 1.437647 10
-5.754143 -5.999898 1.440148 10
-5.772955 -5.996082 1.442304 10
-5.789721 -5.990091 1.443942 10
-5.806657 -5.984234 1.445619 10
-5.822585 -5.975183 1.446810 10
-5.835726 -5.965367 1.447536 10
-5.847989 -5.954645 1.448044 10
-5.860233 -5.943899 1.448546 10
-5.872118 -5.930684 1.448731 10
-5.883278 -5.918840 1.448966 10
-5.894241 -5.906802 1.449153 10
-5.906226 -5.895789 1.449590 10
-5.922714 -5.885078 1.450678 10
-5.937286 -5.876607 1.451746 10
-5.954304 -5.870522 1.453409 10
-5.971692 -5.866836 1.455383 10
-5.994655 -5.862326 1.458031 10
-6.016091 -5.860394 1.460750 10
-6.034361 -5.855314 1.462693 10
-6.050333 -5.847960 1.464074 10
-6.066765 -5.836875 1.465113 10
-6.080053 -5.826883 1.465840 10
-6.092436 -5.816012 1.466348 10
-6.104310 -5.806709 1.466956 10
-6.117373 -5.796465 1.467625 10
-6.129526 -5.785348 1.468074 10
-6.141123 -5.773698 1.468385 10
-6.153955 -5.763205 1.468994 10
-6.167182 -5.748984 1.469253 10
-0.163343 -0.012294 0.023626 10
-0.163371 -0.011979 0.023596 10
-0.163645 -0.011682 0.023601 10
-0.164414 -0.011389 0.023674 10
-0.166169 -0.011188 0.023891 10
-0.168417 -0.011013 0.024179 10
-0.169925 -0.010782 0.024359 10
-0.168763 -0.009728 0.024086 10
-0.168786 -0.009402 0.024053 10
-0.169057 -0.009061 0.024053 10
-0.170315 -0.008799 0.024196 10
-0.172067 -0.008556 0.024409 10
-0.171099 -0.008177 0.024235 10
-0.169391 -0.007709 0.023951 10
-0.170153 -0.007414 0.024023 10
-0.171408 -0.007138 0.024164 10
-0.173898 -0.006936 0.024482 10
-0.175400 -0.006657 0.024656 10
-0.174428 -0.006284 0.024483 10
-0.173950 -0.005931 0.024379 10
-0.175203 -0.005635 0.024518 10
-0.176459 -0.005273 0.024650 11
-0.177711 -0.004967 0.024787 11
-0.178220 -0.004638 0.024821 12
-0.179719 -0.004330 0.024992 12
-0.182456 -0.004012 0.025331 12
-0.182964 -0.003671 0.025362 12
-0.182976 -0.003318 0.025326 12
-0.183977 -0.002981 0.025426 13
-0.184483 -0.002634 0.025457 12
-0.183503 -0.002266 0.025283 12
-0.182521 -0.001902 0.025109 12
-0.181044 -0.001538 0.024868 12
-0.179566 -0.001148 0.024624 12
-0.178087 -0.000796 0.024383 12
-0.169924 -0.000104 0.023194 12
-0.169434 0.000252 0.023089 12
-0.169438 0.000578 0.023053 12
-0.168946 0.000902 0.022951 12
-0.168205 0.001222 0.022815 12
-0.165978 0.001555 0.022475 12
-0.164493 0.001858 0.022239 12
-0.162760 0.002152 0.021971 12
-0.161273 0.002443 0.021736 12
-0.160778 0.002745 0.021636 12
-0.160033 0.003040 0.021502 12
-0.159041 0.003328 0.021335 12
-0.158295 0.003617 0.021202 12
-0.157796 0.004075 0.021084 12
-0.157543 0.004427 0.021011 12
-0.158034 0.004801 0.021037 13
-0.158276 0.005141 0.021033 12
-0.157776 0.005346 0.020942 12
-0.157771 0.005622 0.020911 12
-0.158012 0.005935 0.020910 12
-0.157757 0.006229 0.020843 12
-0.157500 0.006578 0.020770 12
-0.157739 0.006892 0.020768 12
-0.157730 0.007196 0.020734 12
-0.157473 0.007488 0.020667 12
-0.156473 0.007742 0.020503 12
-0.149767 0.007988 0.019561 12
-0.150994 0.008318 0.019693 12
-0.151228 0.008675 0.019685 12
-0.148740 0.008820 0.019330 12
0.113840 -0.097916 -0.005293 12
0.114601 -0.098949 -0.005290 12
0.114792 -0.099494 -0.005259 12
0.114982 -0.100041 -0.005229 12
0.115546 -0.100917 -0.005215 12
0.116107 -0.101796 -0.005200 12
0.116103 -0.102181 -0.005160 12
0.115893 -0.102422 -0.005107 12
0.115700 -0.102643 -0.005058 12
0.115506 -0.102863 -0.005009 12
0.115126 -0.102916 -0.004952 12
0.114525 -0.102841 -0.004879 12
0.114331 -0.103058 -0.004830 12
0.113952 -0.103108 -0.004774 12
0.113960 -0.103473 -0.004737 12
0.113950 -0.103858 -0.004696 12
0.113754 -0.104075 -0.004648 12
0.113926 -0.104629 -0.004614 12
0.113912 -0.105015 -0.004572 12
0.113861 -0.105441 -0.004522 12
0.114212 -0.106167 -0.004494 12
0.114377 -0.106725 -0.004459 12
0.113811 -0.106601 -0.004395 12
0.113446 -0.106627 -0.004343 12
0.113608 -0.107185 -0.004308 12
0.113769 -0.107745 -0.004272 12
0.113928 -0.108305 -0.004236 12
0.113867 -0.108734 -0.004184 12
0.114023 -0.109296 -0.004147 12
0.114177 -0.109859 -0.004110 12
0.113790 -0.109902 -0.004053 12
0.113922 -0.110486 -0.004011 13
0.114251 -0.111225 -0.003979 13
0.113684 -0.111093 -0.003916 13
0.111690 -0.109559 -0.003805 13
0.110593 -0.108894 -0.003725 13
0.110920 -0.109631 -0.003693 13
0.110359 -0.109490 -0.003632 13
0.109621 -0.109170 -0.003565 13
0.108689 -0.108690 -0.003489 13
0.108660 -0.109074 -0.003446 13
0.109687 -0.110522 -0.003435 13
0.110708 -0.111974 -0.003424 12
0.111198 -0.112897 -0.003395 12
0.111510 -0.113643 -0.003360 13
0.112169 -0.114748 -0.003335 13
0.112127 -0.115140 -0.003289 13
0.111020 -0.114475 -0.003208 13
0.108719 -0.112529 -0.003098 13
0.107640 -0.111835 -0.003024 13
0.107256 -0.111859 -0.002969 13
0.106680 -0.111719 -0.002906 13
0.106641 -0.112103 -0.002861 13
0.106086 -0.111942 -0.002803 13
0.106732 -0.113052 -0.002776 13
0.108060 -0.114893 -0.002766 13
0.107501 -0.114733 -0.002707 12
0.107626 -0.115303 -0.002665 12
0.108769 -0.116971 -0.002648 12
0.110396 -0.119214 -0.002637 12
0.111866 -0.121260 -0.002624 12
0.112314 -0.122209 -0.002587 12
0.112087 -0.122418 -0.002536 12
0.112698 -0.123554 -0.002502 12
0.113137 -0.124507 -0.002463 12
0.112734 -0.124537 -0.002405 12
0.112833 -0.125122 -0.002359 12
0.112575 -0.125355 -0.002300 12
0.111838 -0.125009 -0.002236 12
0.110936 -0.124475 -0.002169 12
0.110203 -0.124124 -0.002106 12
0.108933 -0.123247 -0.002025 12
0.107874 -0.122515 -0.001957 12
0.108301 -0.123472 -0.001917 12
0.108561 -0.124242 -0.001873 11
0.108326 -0.124447 -0.001820 11
0.107600 -0.124086 -0.001759 11
0.105588 -0.122190 -0.001682 11
0.103890 -0.120685 -0.001608 11
0.102806 -0.119969 -0.001535 11
0.101930 -0.119403 -0.001475 11
0.101380 -0.119215 -0.001421 11
0.100024 -0.118072 -0.001355 11
0.100082 -0.118678 -0.001301 11
0.101486 -0.120764 -0.001276 10
0.101418 -0.121148 -0.001227 10
0.101029 -0.121148 -0.001174 10
0.101918 -0.122685 -0.001136 10
0.102164 -0.123456 -0.001090 10
-1.357212 -8.161389 1.012965 10
-1.371945 -8.153166 1.014098 10
-1.388152 -8.145143 1.015450 10
-1.402878 -8.137108 1.016608 10
-1.418087 -8.131980 1.018126 10
-1.432980 -8.125113 1.019425 10
-1.447379 -8.115532 1.020382 10
-1.462050 -8.107636 1.021546 10
-1.476301 -8.097516 1.022428 10
-1.491190 -8.091031 1.023766 10
-1.507749 -8.085699 1.025445 10
-1.522280 -8.077451 1.026555 10
-1.536698 -8.068689 1.027598 10
-1.551085 -8.059903 1.028633 10
-1.567039 -8.051771 1.029947 10
-1.581708 -8.044635 1.031184 10
-1.596500 -8.038203 1.032513 10
-1.610936 -8.030040 1.033619 10
-1.625787 -8.024040 1.035001 10
-1.641073 -8.020199 1.036660 10
-1.654992 -8.009772 1.037466 10
-1.668933 -7.999563 1.038298 10
-1.685614 -7.995569 1.040130 10
-1.700374 -7.989432 1.041485 10
-1.714446 -7.980115 1.042425 10
-1.728484 -7.970775 1.043358 10
-1.746017 -7.964152 1.045037 10
-1.761126 -7.959842 1.046625 10
-1.774987 -7.949935 1.047477 10
-1.788705 -7.939523 1.048257 10
-1.802438 -7.935707 1.049711 10
-1.817271 -7.930323 1.051153 10
-1.831194 -7.921046 1.052076 10
-1.845543 -7.913676 1.053251 10
-1.862567 -7.905351 1.054689 10
-1.876814 -7.897684 1.055820 10
-1.891382 -7.891439 1.057139 10
-1.905239 -7.882274 1.058066 10
-1.920969 -7.874899 1.059426 10
-1.935662 -7.869294 1.060827 10
-1.949740 -7.861257 1.061897 10
-1.963680 -7.852713 1.062898 10
-1.978136 -7.846309 1.064186 10
-1.992942 -7.841320 1.065664 10
-2.007803 -7.836542 1.067172 10
-2.021410 -7.826938 1.068020 10
-2.037468 -7.815600 1.069022 10
-2.050723 -7.810397 1.070270 10
-2.065394 -7.805031 1.071692 10
-2.080112 -7.799878 1.073142 10
-2.096704 -7.790814 1.074447 10
-2.110548 -7.782493 1.075457 10
-2.124700 -7.775342 1.076628 10
-2.139157 -7.769361 1.077959 10
-2.154201 -7.765501 1.079584 10
-2.168700 -7.759704 1.080940 10
-2.181232 -7.752134 1.081850 10
-2.194354 -7.741518 1.082530 10
-2.210887 -7.732692 1.083851 10
-2.225798 -7.728456 1.085420 10
-2.240698 -7.724191 1.086985 10
-2.254552 -7.716330 1.088044 10
-2.269799 -7.708267 1.089269 10
-2.284380 -7.702969 1.090687 10
-2.297821 -7.693843 1.091561 10
-2.311232 -7.684696 1.092429 10
-2.325626 -7.678844 1.093765 10
-2.340177 -7.674267 1.094857 10
-2.354109 -7.666941 1.095979 10
-2.367728 -7.658644 1.096961 10
-2.383402 -7.652250 1.098414 10
-2.397572 -7.645793 1.099658 10
-2.411503 -7.638600 1.100796 10
-2.425195 -7.630673 1.101826 10
-2.440648 -7.623693 1.103190 10
-2.455288 -7.618778 1.104654 10
-2.469991 -7.614073 1.106147 10
-2.483921 -7.606984 1.107295 10
-3.054547 -7.374819 1.160250 10
-3.066345 -7.363021 1.160626 10
-3.077439 -7.349608 1.160750 10
-3.092696 -7.338936 1.161712 10
-3.104776 -7.327992 1.162219 10
-3.115279 -7.313385 1.162143 10
-3.127195 -7.302178 1.162601 10
-3.176252 -7.285429 1.167489 10
-3.190957 -7.280693 1.168979 10
-3.206750 -7.278418 1.170867 10
-3.224325 -7.276655 1.173047 10
-3.239523 -7.272953 1.174709 10
-3.253410 -7.266283 1.175894 10
-3.267280 -7.259589 1.177074 10
-3.284595 -7.253710 1.178800 10
-3.298749 -7.247632 1.180081 10
-3.311763 -7.239050 1.180954 10
-3.324651 -7.230223 1.181785 10
-3.337626 -7.221596 1.182649 10
-3.345464 -7.205252 1.182037 10
-3.357439 -7.194574 1.182557 10
-3.372749 -7.191039 1.184252 10
-3.388873 -7.179380 1.185231 10
-3.404256 -7.172709 1.186617 10
-3.417794 -7.158917 1.187032 10
-3.431886 -7.152802 1.188300 11
-3.445647 -7.145992 1.189454 11
-3.462865 -7.139911 1.191147 10
-3.476818 -7.133485 1.192365 10
-3.490325 -7.126145 1.193431 10
-3.504582 -7.120331 1.194752 10
-3.518760 -7.111197 1.195726 10
-3.534204 -7.107762 1.197449 10
-3.550644 -7.106284 1.199505 10
-3.565206 -7.101013 1.200923 10
-3.582117 -7.097276 1.202812 10
-3.598123 -7.094807 1.204709 10
-3.612899 -7.089880 1.206191 10
-3.626318 -7.082282 1.207218 10
-3.641301 -7.074664 1.208455 10
-3.654576 -7.066794 1.209435 10
-3.668064 -7.059337 1.210487 10
-3.679795 -7.053074 1.208067 10
-3.694339 -7.041620 1.208852 10
-3.705813 -7.030375 1.209247 10
-3.717144 -7.018894 1.209598 10
-3.729954 -7.010232 1.210434 10
-3.744670 -7.002182 1.211588 10
-3.759199 -6.996736 1.212981 10
-3.773486 -6.990825 1.214294 10
-3.789178 -6.987491 1.216056 10
-3.807556 -6.983191 1.218082 10
-3.825508 -6.983900 1.220558 10
-3.843954 -6.985432 1.223183 10
-3.858595 -6.979999 1.224592 10
-3.872631 -6.973454 1.225808 10
-3.885315 -6.967363 1.226887 10
-3.898969 -6.960119 1.227980 10
-3.912004 -6.951771 1.228879 10
-3.928550 -6.943926 1.230300 10
-3.941308 -6.935094 1.231113 10
-3.951843 -6.922376 1.231233 10
-3.962098 -6.909216 1.231272 10
-3.974760 -6.897470 1.231777 10
-3.986432 -6.886844 1.232262 10
-3.998699 -6.877267 1.232933 10
-4.012066 -6.869589 1.233945 10
-4.026247 -6.860524 1.234925 10
-4.043222 -6.858965 1.237040 10
-4.060962 -6.858640 1.239383 10
-4.075559 -6.852965 1.240762 10
-4.093565 -6.847489 1.242619 10
-4.109494 -6.846717 1.244673 10
-4.124977 -6.842420 1.246310 10
-4.140459 -6.838090 1.247944 10
-4.158978 -6.833291 1.249939 10
-4.172655 -6.825935 1.251025 10
-4.185933 -6.817920 1.251990 10
-4.197123 -6.806516 1.252332 10
-4.209345 -6.794131 1.252714 10
-4.216432 -6.776190 1.251844 10
-4.221633 -6.755315 1.250424 10
-4.223489 -6.729217 1.248026 10
-4.226830 -6.703008 1.245816 10
-4.229703 -6.678825 1.243749 10
-4.233162 -6.655699 1.241867 10
-4.238941 -6.636332 1.240677 10
-4.245595 -6.618422 1.239752 10
-4.259553 -6.611931 1.240963 10
-4.272026 -6.603129 1.241741 10
-4.285693 -6.596168 1.242866 10
-4.302800 -6.591925 1.244727 10
-4.317125 -6.585937 1.246033 10
-5.079480 -6.357619 1.324941 10
-5.094070 -6.350547 1.326179 10
-5.108808 -6.343635 1.327453 10
-5.125556 -6.339184 1.329246 10
-5.141218 -6.333351 1.330753 10
-5.157500 -6.328246 1.332418 10
-5.176283 -6.326158 1.334723 10
-5.193982 -6.322686 1.336743 10
-5.211699 -6.316908 1.338533 10
-5.226732 -6.310116 1.339859 10
-5.241285 -6.302720 1.341060 10
-5.252194 -6.290935 1.341327 10
-5.262596 -6.276305 1.341240 10
-5.275197 -6.266562 1.341941 10
-5.289213 -6.258489 1.343001 10
-5.302101 -6.249069 1.343774 10
-5.313511 -6.235673 1.343946 10
-5.325077 -6.224704 1.344385 10
-5.339832 -6.217462 1.345621 10
-5.353456 -6.208874 1.346576 10
-5.369409 -6.198532 1.347668 10
-5.385434 -6.192673 1.349222 10
-5.402754 -6.188261 1.351096 10
-5.421917 -6.188109 1.353648 10
-5.446643 -6.187597 1.356912 10
-5.463666 -6.182665 1.358694 10
-5.476597 -6.173078 1.359456 10
-5.491810 -6.166043 1.360782 10
-5.509909 -6.160015 1.362598 10
-5.524453 -6.152169 1.363752 10
-5.534974 -6.142669 1.362382 10
-5.545522 -6.130376 1.362555 10
-5.564993 -6.114870 1.363608 10
-5.580128 -6.103272 1.364471 10
-5.593501 -6.091905 1.365121 10
-5.609092 -6.080782 1.366093 10
-5.621329 -6.076788 1.367331 10
-5.637444 -6.070491 1.368860 10
-5.652824 -6.065520 1.370422 10
-5.670789 -6.061128 1.372391 10
-5.693149 -6.061363 1.375416 10
-5.714178 -6.060098 1.378112 10
-5.732680 -6.056088 1.380191 10
-5.749151 -6.049884 1.381777 10
-5.765534 -6.039270 1.382907 10
-5.778373 -6.031339 1.383830 10
-5.790211 -6.020218 1.384298 10
-5.802714 -6.009785 1.384925 10
-5.816796 -5.996729 1.385500 10
-5.828568 -5.985538 1.385949 10
-5.839976 -5.973969 1.386313 10
-5.851017 -5.962026 1.386592 10
-5.865332 -5.951306 1.387433 10
-5.880144 -5.943174 1.388602 10
-5.897033 -5.937106 1.390258 10
-5.915488 -5.932568 1.392278 10
-5.939004 -5.928835 1.395060 10
-5.957124 -5.923838 1.396989 10
-5.974547 -5.918100 1.398750 10
-5.993024 -5.913356 1.400752 10
-6.009909 -5.904902 1.402168 10
-6.026275 -5.897992 1.403668 10
-6.039635 -5.888114 1.404467 10
-6.051212 -5.876488 1.404849 10
-6.064155 -5.864107 1.405339 10
-6.076575 -5.853290 1.405917 10
-6.087909 -5.841422 1.406242 10
-6.098507 -5.828852 1.406398 10
-6.111178 -5.816198 1.406825 10
-6.124231 -5.805962 1.407546 10
-8.643118 -4.576514 1.621576 10
-8.658837 -4.563296 1.622366 10
-8.898435 -4.462782 1.644534 10
-8.915123 -4.449476 1.645446 10
-0.165778 -0.013521 0.023642 10
-0.165561 -0.013182 0.023579 10
-0.166330 -0.012920 0.023657 10
-0.165865 -0.012561 0.023558 10
-0.170230 -0.010820 0.023972 10
-0.169514 -0.010446 0.023838 10
-0.168796 -0.010074 0.023705 10
-0.169065 -0.009793 0.023713 10
-0.169338 -0.009421 0.023713 10
-0.168866 -0.009068 0.023614 10
-0.168640 -0.008729 0.023550 10
-0.174617 -0.008363 0.024317 10
-0.173895 -0.007992 0.024183 10
-0.174409 -0.007678 0.024221 10
-0.174428 -0.007342 0.024190 10
-0.175437 -0.007014 0.024293 10
-0.176692 -0.006723 0.024433 11
-0.176214 -0.006364 0.024333 11
-0.176725 -0.006041 0.024370 12
-0.177733 -0.005701 0.024471 12
-0.180223 -0.005433 0.024779 12
-0.181723 -0.005128 0.024951 12
-0.181738 -0.004777 0.024918 12
-0.182744 -0.004387 0.025014 13
-0.183004 -0.004040 0.025015 12
-0.182767 -0.003714 0.024950 12
-0.182036 -0.003348 0.024815 12
-0.181303 -0.002985 0.024681 12
-0.179827 -0.002614 0.024445 12
-0.178846 -0.002254 0.024277 12
-0.171184 -0.001438 0.023166 12
-0.170447 -0.001133 0.023036 12
-0.169462 -0.000799 0.022870 12
-0.168724 -0.000471 0.022739 12
-0.168234 -0.000086 0.022634 12
-0.168238 0.000238 0.022603 12
-0.167994 0.000562 0.022538 12
-0.166758 0.000879 0.022340 12
-0.165026 0.001217 0.022073 12
-0.163541 0.001521 0.021843 13
-0.162550 0.001825 0.021680 12
-0.161064 0.002119 0.021450 12
-0.159824 0.002579 0.021238 13
-0.160071 0.002947 0.021234 12
-0.159078 0.003264 0.021069 12
-0.158083 0.003603 0.020902 12
-0.157833 0.003819 0.020847 12
-0.157334 0.004110 0.020751 12
-0.157578 0.004420 0.020752 12
-0.157573 0.004724 0.020722 12
-0.157072 0.005012 0.020625 12
-0.156819 0.005306 0.020562 12
-0.156565 0.005572 0.020501 12
-0.156806 0.005883 0.020503 12
-0.155063 0.006171 0.020240 12
-0.153321 0.006397 0.019983 12
-0.154551 0.006746 0.020114 12
-0.155532 0.007089 0.020211 12
-0.155274 0.007404 0.020145 12
-0.153777 0.007630 0.019922 12
-0.152281 0.007849 0.019698 12
0.113915 -0.097797 -0.005854 12
0.114487 -0.098667 -0.005847 12
0.115246 -0.099702 -0.005849 12
0.115058 -0.099922 -0.005803 12
0.115057 -0.100305 -0.005767 12
0.115415 -0.101038 -0.005744 12
0.115600 -0.101588 -0.005717 12
0.115595 -0.101973 -0.005679 12
0.115590 -0.102359 -0.005642 12
0.115379 -0.102599 -0.005591 12
0.114999 -0.102653 -0.005535 12
0.114806 -0.102872 -0.005488 12
0.114426 -0.102923 -0.005433 12
0.114417 -0.103309 -0.005395 12
0.114593 -0.103862 -0.005365 12
0.114581 -0.104248 -0.005327 12
0.114385 -0.104467 -0.005280 12
0.114354 -0.104873 -0.005237 12
0.114340 -0.105260 -0.005198 12
0.114324 -0.105647 -0.005159 12
0.114675 -0.106375 -0.005136 12
0.114437 -0.106633 -0.005080 12
0.114437 -0.107002 -0.005045 12
0.114235 -0.107219 -0.004997 12
0.114032 -0.107437 -0.004949 12
0.114193 -0.107997 -0.004917 12
0.114351 -0.108559 -0.004885 12
0.114508 -0.109121 -0.004852 12
0.114844 -0.109857 -0.004826 12
0.114238 -0.109769 -0.004754 12
0.113131 -0.109119 -0.004669 13
0.113464 -0.109856 -0.004643 13
0.113634 -0.110401 -0.004613 13
0.111420 -0.108736 -0.004477 13
0.109965 -0.107724 -0.004379 13
0.109583 -0.107758 -0.004325 13
0.109024 -0.107615 -0.004264 13
0.108998 -0.107999 -0.004224 13
0.108796 -0.108205 -0.004185 13
0.108592 -0.108411 -0.004145 13
0.109270 -0.109501 -0.004134 12
0.110454 -0.111146 -0.004138 12
0.111123 -0.112244 -0.004124 12
0.111438 -0.112988 -0.004098 12
0.112101 -0.114091 -0.004087 13
0.111341 -0.113787 -0.004015 13
0.110254 -0.113104 -0.003935 13
0.108996 -0.112238 -0.003851 13
0.108088 -0.111727 -0.003779 13
0.107685 -0.111771 -0.003721 13
0.107127 -0.111615 -0.003662 13
0.106053 -0.110915 -0.003586 13
0.105843 -0.111117 -0.003539 12
0.106493 -0.112225 -0.003520 13
0.106624 -0.112790 -0.003484 12
0.106754 -0.113357 -0.003448 12
0.107737 -0.114836 -0.003439 12
0.110060 -0.117798 -0.003467 12
0.111540 -0.119837 -0.003471 12
0.111993 -0.120782 -0.003441 12
0.112443 -0.121729 -0.003412 12
0.112848 -0.122718 -0.003372 12
0.113291 -0.123669 -0.003341 12
0.113394 -0.124254 -0.003299 12
0.113327 -0.124654 -0.003252 12
0.112924 -0.124684 -0.003195 12
0.112374 -0.124508 -0.003139 12
0.111972 -0.124536 -0.003082 12
0.111236 -0.124190 -0.003017 12
0.110126 -0.123506 -0.002934 12
0.109395 -0.123155 -0.002870 12
0.108665 -0.122801 -0.002806 12
0.109094 -0.123757 -0.002772 12
0.109684 -0.124904 -0.002742 11
0.108954 -0.124548 -0.002679 11
0.108061 -0.124001 -0.002612 11
0.106209 -0.122300 -0.002527 11
0.104628 -0.121025 -0.002437 11
0.104072 -0.120845 -0.002380 11
0.104007 -0.121232 -0.002334 11
0.102803 -0.120289 -0.002264 11
0.101400 -0.119187 -0.002181 11
0.101659 -0.119952 -0.002143 11
0.102420 -0.121273 -0.002119 10
0.102834 -0.122233 -0.002083 10
0.102561 -0.122463 -0.002025 10
0.103290 -0.123809 -0.001994 10
0.102896 -0.123813 -0.001941 10
0.102502 -0.123816 -0.001888 10
-1.339203 -8.165759 0.946038 10
-1.354231 -8.159296 0.947402 10
-1.370666 -8.152547 0.948926 10
-1.385156 -8.143089 0.949926 10
-1.399493 -8.132868 0.950858 10
-1.414558 -8.127027 0.952298 10
-1.432266 -8.119643 0.953945 10
-1.445797 -8.113523 0.955155 10
-1.461029 -8.108819 0.956725 10
-1.474963 -8.097001 0.957453 10
-1.489034 -8.086137 0.958289 10
-1.503755 -8.078910 0.959553 10
-1.518542 -8.072145 0.960870 10
-1.533592 -8.066816 0.962356 10
-1.551195 -8.059663 0.964011 10
-1.565786 -8.052080 0.965224 10
-1.579287 -8.046471 0.966479 10
-1.593688 -8.038108 0.967594 10
-1.610864 -8.029119 0.969019 10
-1.625955 -8.024349 0.970563 10
-1.641130 -8.020038 0.972162 10
-1.655793 -8.013267 0.973462 10
-1.672975 -8.004633 0.974921 10
-1.687446 -7.997074 0.976121 10
-1.700345 -7.989077 0.977071 10
-1.714715 -7.981228 0.978230 10
-1.729171 -7.973837 0.979444 10
-1.743761 -7.967149 0.980742 10
-1.758871 -7.962856 0.982334 10
-1.773537 -7.956598 0.983682 10
-1.791068 -7.950136 0.985391 10
-1.805643 -7.943577 0.986699 10
-1.819762 -7.935055 0.987762 10
-1.833031 -7.929265 0.988968 10
-1.847607 -7.922871 0.990292 10
-1.862058 -7.915967 0.991550 10
-1.876256 -7.908071 0.992683 10
-1.890551 -7.900632 0.993870 10
-1.907804 -7.893431 0.995474 10
-1.921763 -7.884730 0.996498 10
-1.935455 -7.875042 0.997395 10
-1.949600 -7.867256 0.998530 10
-1.965089 -7.859085 0.999808 10
-1.979609 -7.852932 1.001146 10
-1.994117 -7.846751 1.002480 10
-2.007805 -7.837419 1.003409 10
-2.023270 -7.829374 1.004695 10
-2.037530 -7.822393 1.005922 10
-2.052153 -7.816826 1.007329 10
-2.066314 -7.809553 1.008514 10
-2.079754 -7.799619 1.009354 10
-2.094519 -7.794692 1.010840 10
-2.109529 -7.790695 1.012446 10
-2.123165 -7.781643 1.013395 10
-2.138391 -7.773134 1.014605 10
-2.152970 -7.767622 1.015975 10
-2.166836 -7.759301 1.016107 10
-2.180770 -7.751185 1.016285 10
-2.196492 -7.743918 1.015865 10
-2.209916 -7.734484 1.016710 10
-2.223597 -7.725983 1.017632 10
-2.238765 -7.722697 1.019268 10
-2.253582 -7.718186 1.020785 10
-2.267349 -7.710089 1.021717 10
-2.280876 -7.701244 1.022651 10
-2.294656 -7.693326 1.023713 10
-2.311599 -7.686203 1.025262 10
-2.326461 -7.681830 1.026392 10
-2.339281 -7.675679 1.027505 10
-2.352553 -7.666233 1.028373 10
-2.369417 -7.658982 1.029923 10
-2.383449 -7.652089 1.031130 10
-2.396495 -7.642095 1.031917 10
-2.409815 -7.633024 1.032827 10
-2.426295 -7.624703 1.034226 10
-2.439596 -7.620275 1.035567 10
-2.454595 -7.616559 1.037200 10
-2.469518 -7.612576 1.038798 10
-3.040773 -7.383428 1.092808 10
-3.052114 -7.370513 1.093088 10
-3.064175 -7.359413 1.093633 10
-3.077586 -7.347966 1.094333 10
-3.089395 -7.336367 1.094806 10
-3.102520 -7.327945 1.095750 10
-3.115143 -7.318358 1.096520 10
-3.190261 -7.294949 1.104272 10
-3.204972 -7.290201 1.105770 10
-3.220282 -7.286780 1.107471 10
-3.237930 -7.281712 1.109323 10
-3.252530 -7.276640 1.110775 10
-3.266712 -7.270637 1.112085 10
-3.279869 -7.262348 1.113046 10
-3.292942 -7.250514 1.113665 10
-3.303586 -7.236773 1.113784 10
-3.316045 -7.227070 1.114520 10
-3.328691 -7.217795 1.115321 10
-3.343621 -7.206848 1.116269 10
-3.357787 -7.200891 1.117582 10
-3.371729 -7.194460 1.118820 10
-3.384925 -7.186432 1.119811 11
-3.397994 -7.178158 1.120762 10
-3.408222 -7.170414 1.121385 11
-3.421711 -7.166287 1.122779 10
-3.434308 -7.157053 1.123577 10
-3.447097 -7.148244 1.124440 10
-3.463550 -7.140617 1.125900 10
-3.478686 -7.136651 1.127527 10
-3.493059 -7.131096 1.128904 10
-3.506986 -7.124625 1.130137 10
-3.523755 -7.123894 1.132283 10
-3.540094 -7.122239 1.134285 10
-3.555446 -7.118554 1.135967 10
-3.570107 -7.116583 1.137718 10
-3.588060 -7.111768 1.139638 10
-3.602741 -7.106656 1.141098 10
-3.614832 -7.096442 1.141738 10
-3.627350 -7.087090 1.142515 10
-3.642887 -7.077509 1.143671 10
-3.655246 -7.067888 1.144402 10
-3.666327 -7.055831 1.144736 10
-3.675801 -7.043759 1.144855 10
-3.691348 -7.034293 1.146023 10
-3.704299 -7.025903 1.146947 10
-3.717811 -7.018583 1.148045 10
-3.732704 -7.013857 1.149569 10
-3.748820 -7.008429 1.151189 10
-3.763939 -7.004075 1.152777 10
-3.780584 -7.002518 1.154829 10
-3.798063 -7.002445 1.157130 10
-3.815598 -6.999475 1.159168 10
-3.831558 -6.996497 1.160996 10
-3.848236 -6.994785 1.163037 10
-3.864085 -6.991518 1.164824 10
-3.879858 -6.982285 1.166043 10
-3.893291 -6.974627 1.167100 10
-3.902950 -6.963112 1.167296 10
-3.912948 -6.949375 1.167329 10
-3.923882 -6.937348 1.167647 10
-3.935211 -6.926000 1.167576 10
-3.948415 -6.918023 1.168570 10
-3.960250 -6.907660 1.169162 10
-3.975215 -6.897140 1.170155 10
-3.989106 -6.890371 1.171355 10
-4.003236 -6.884002 1.172624 10
-4.017980 -6.878672 1.174071 10
-4.034923 -6.874295 1.175898 10
-4.051293 -6.871668 1.177813 10
-4.067542 -6.868789 1.179689 10
-4.083922 -6.866087 1.181598 10
-4.101763 -6.863037 1.183668 10
-4.118027 -6.860044 1.185534 10
-4.132635 -6.854259 1.186921 10
-4.145572 -6.845695 1.187827 10
-4.159600 -6.833506 1.188540 10
-4.170303 -6.821304 1.188811 10
-4.179783 -6.809834 1.188988 10
-4.192633 -6.801182 1.189874 10
-4.208105 -6.791422 1.191004 10
-4.219350 -6.780197 1.191438 10
-4.230176 -6.768326 1.191756 10
-4.242024 -6.758113 1.192364 10
-5.043562 -6.393648 1.264050 10
-5.056661 -6.384730 1.264944 10
-5.070207 -6.376365 1.265949 10
-5.089944 -6.373437 1.268281 10
-5.108111 -6.370786 1.270431 10
-5.124583 -6.365970 1.272154 10
-5.142609 -6.363037 1.274259 10
-5.159710 -6.358906 1.276129 10
-5.174942 -6.352436 1.277534 10
-5.188136 -6.343444 1.278434 10
-5.199749 -6.332516 1.278944 10
-5.215287 -6.321809 1.279994 10
-5.227953 -6.314426 1.280974 10
-5.238400 -6.302096 1.281200 10
-5.249138 -6.290130 1.281497 10
-5.263164 -6.277599 1.282177 10
-5.274801 -6.266725 1.282696 10
-5.287215 -6.256773 1.283403 10
-5.299930 -6.247174 1.284183 10
-5.313723 -6.236604 1.285015 10
-5.329935 -6.231080 1.286638 10
-5.349846 -6.229827 1.289149 10
-5.369613 -6.228332 1.291618 10
-5.395138 -6.228975 1.295048 10
-5.416886 -6.229597 1.297977 10
-5.430699 -6.221041 1.299000 10
-5.443571 -6.213609 1.300003 10
-5.460624 -6.208704 1.301794 10
-5.475554 -6.201350 1.303077 10
-5.486381 -6.189342 1.303382 10
-5.497182 -6.177315 1.303682 10
-5.510127 -6.163314 1.304070 10
-5.521864 -6.152350 1.304592 10
-5.534411 -6.144308 1.303760 10
-5.548129 -6.135136 1.301485 10
-5.569336 -6.119376 1.302807 10
-5.586560 -6.112231 1.304406 10
-5.603516 -6.102591 1.305738 10
-5.621564 -6.096264 1.307522 10
-5.637508 -6.096249 1.309614 10
-5.656845 -6.093370 1.311887 10
-5.675687 -6.089897 1.314041 10
-5.696056 -6.087996 1.316542 10
-5.714974 -6.082325 1.318502 10
-5.730792 -6.075464 1.319942 10
-5.747454 -6.069461 1.321573 10
-5.757820 -6.056795 1.321755 10
-5.768330 -6.044290 1.321971 10
-5.779839 -6.032837 1.322417 10
-5.792182 -6.022253 1.323053 10
-5.804163 -6.011288 1.323606 10
-5.818210 -6.000332 1.324432 10
-5.832391 -5.991616 1.325484 10
-5.844316 -5.980573 1.326023 10
-5.856567 -5.969859 1.326635 10
-5.876441 -5.962664 1.328580 10
-5.899081 -5.962417 1.331534 10
-5.918959 -5.959301 1.333857 10
-5.931873 -5.951239 1.334802 10
-5.950709 -5.942776 1.336493 10
-5.973926 -5.942820 1.339550 10
-5.992782 -5.938450 1.341622 10
-6.005670 -5.928134 1.342355 10
-6.021167 -5.918279 1.343475 10
-6.034728 -5.908593 1.344356 10
-6.045800 -5.896464 1.344681 10
-6.057203 -5.884658 1.345080 10
-6.069795 -5.871926 1.345550 10
-6.081507 -5.860418 1.346017 10
-6.093910 -5.849570 1.346637 10
-8.601283 -4.647366 1.563577 10
-0.165859 -0.013682 0.022968 10
-0.165894 -0.013304 0.022938 10
-0.165429 -0.012945 0.022845 10
-0.165949 -0.012693 0.022890 10
-0.168037 -0.011488 0.023054 10
-0.167074 -0.011098 0.022892 10
-0.168088 -0.010840 0.023001 10
-0.168606 -0.010546 0.023043 10
-0.167641 -0.010161 0.022881 10
-0.167662 -0.009867 0.022857 10
-0.167441 -0.009470 0.022792 10
-0.167710 -0.009161 0.022799 10
-0.168225 -0.008863 0.022840 10
-0.169236 -0.008589 0.022947 10
-0.172227 -0.008377 0.023319 10
-0.174226 -0.008137 0.023559 10
-0.175235 -0.007845 0.023665 10
-0.175254 -0.007507 0.023637 10
-0.176265 -0.007148 0.023737 10
-0.178511 -0.006894 0.024008 11
-0.180756 -0.006631 0.024278 11
-0.180771 -0.006314 0.024251 11
-0.180044 -0.005941 0.024122 12
-0.182041 -0.005655 0.024357 12
-0.183046 -0.005333 0.024460 12
-0.183308 -0.004987 0.024462 12
-0.183819 -0.004581 0.024492 12
-0.183088 -0.004209 0.024363 12
-0.181860 -0.003862 0.024170 12
-0.181871 -0.003511 0.024140 12
-0.180645 -0.003076 0.023940 12
-0.179663 -0.002712 0.023778 12
-0.179176 -0.002359 0.023682 12
-0.176211 -0.001980 0.023259 12
-0.172253 -0.001573 0.022704 12
-0.170772 -0.001230 0.022479 12
-0.170778 -0.000901 0.022450 12
-0.169792 -0.000568 0.022290 12
-0.169059 -0.000257 0.022116 12
-0.166832 0.000068 0.021796 12
-0.163613 0.000382 0.021347 12
-0.161880 0.000690 0.021092 12
-0.161139 0.001026 0.020965 12
-0.161140 0.001337 0.020937 12
-0.160893 0.001645 0.020877 12
-0.159406 0.001937 0.020657 12
-0.158413 0.002369 0.020488 12
-0.158164 0.002698 0.020426 12
-0.158410 0.003008 0.020430 12
-0.158655 0.003346 0.020432 12
-0.158404 0.003619 0.020374 12
-0.157657 0.003906 0.020251 12
-0.157405 0.004203 0.020191 12
-0.157152 0.004499 0.020131 12
-0.157393 0.004865 0.020130 12
-0.157883 0.005185 0.020165 12
-0.157877 0.005461 0.020139 12
-0.157870 0.005766 0.020111 12
-0.155878 0.006048 0.019825 12
-0.151409 0.006167 0.019230 12
-0.155851 0.006950 0.019740 12
-0.155345 0.007254 0.019647 12
-0.153847 0.007481 0.019431 12
-0.151111 0.007640 0.019059 12
-0.150357 0.007892 0.018938 12
-0.149106 0.008115 0.018754 12
0.114707 -0.096425 -0.006682 12
0.114328 -0.098043 -0.006489 12
0.114900 -0.098913 -0.006488 12
0.115109 -0.099439 -0.006469 12
0.115299 -0.099986 -0.006445 12
0.115452 -0.100574 -0.006414 12
0.115826 -0.101288 -0.006400 12
0.116198 -0.102004 -0.006387 12
0.116193 -0.102390 -0.006352 12
0.115813 -0.102447 -0.006296 12
0.115637 -0.102648 -0.006255 12
0.115257 -0.102702 -0.006200 12
0.115063 -0.102922 -0.006155 12
0.114833 -0.103181 -0.006102 12
0.114638 -0.103400 -0.006056 12
0.114258 -0.103451 -0.006002 12
0.114062 -0.103669 -0.005956 12
0.114218 -0.104244 -0.005926 12
0.114205 -0.104630 -0.005890 12
0.114008 -0.104848 -0.005845 12
0.113810 -0.105065 -0.005800 12
0.113978 -0.105622 -0.005773 12
0.114327 -0.106350 -0.005755 12
0.113943 -0.106397 -0.005700 12
0.113560 -0.106444 -0.005645 12
0.113522 -0.106852 -0.005603 12
0.113683 -0.107412 -0.005575 12
0.114205 -0.108316 -0.005564 12
0.114363 -0.108879 -0.005536 12
0.114138 -0.109116 -0.005485 12
0.113211 -0.108642 -0.005404 13
0.112466 -0.108338 -0.005332 13
0.111722 -0.108031 -0.005261 13
0.110764 -0.107586 -0.005173 13
0.110203 -0.107449 -0.005111 13
0.109643 -0.107309 -0.005049 13
0.109083 -0.107168 -0.004987 13
0.108881 -0.107376 -0.004942 13
0.108696 -0.107565 -0.004901 13
0.108670 -0.107948 -0.004863 13
0.109528 -0.109213 -0.004865 13
0.110873 -0.111052 -0.004881 13
0.110310 -0.110908 -0.004819 13
0.110452 -0.111474 -0.004788 13
0.111997 -0.113462 -0.004817 13
0.111607 -0.113498 -0.004762 12
0.111393 -0.113710 -0.004715 12
0.110150 -0.112830 -0.004628 13
0.108368 -0.111428 -0.004516 13
0.107598 -0.111133 -0.004440 13
0.107041 -0.110978 -0.004380 13
0.106658 -0.111002 -0.004327 13
0.106275 -0.111025 -0.004274 13
0.106218 -0.111426 -0.004231 13
0.106007 -0.111628 -0.004185 13
0.106827 -0.112920 -0.004180 12
0.107984 -0.114578 -0.004187 12
0.107919 -0.114984 -0.004142 12
0.107701 -0.115190 -0.004095 12
0.107313 -0.115212 -0.004042 12
0.107095 -0.115416 -0.003995 12
0.111568 -0.121155 -0.004081 12
0.111169 -0.121183 -0.004025 12
0.111109 -0.121579 -0.003982 12
0.111699 -0.122734 -0.003958 12
0.111970 -0.123502 -0.003926 12
0.112072 -0.124086 -0.003888 12
0.112004 -0.124485 -0.003844 12
0.111225 -0.124179 -0.003768 12
0.110657 -0.124017 -0.003707 12
0.109592 -0.123294 -0.003630 12
0.108552 -0.122548 -0.003558 12
0.108981 -0.123504 -0.003530 12
0.109407 -0.124462 -0.003502 11
0.108678 -0.124106 -0.003437 11
0.108114 -0.123936 -0.003377 11
0.106690 -0.122858 -0.003284 11
0.104985 -0.121360 -0.003190 11
0.103940 -0.120612 -0.003118 11
0.102897 -0.119862 -0.003046 11
0.101350 -0.118555 -0.002956 11
0.100640 -0.118177 -0.002895 11
0.101386 -0.119512 -0.002876 11
0.101321 -0.119896 -0.002834 11
0.101375 -0.120506 -0.002787 10
0.102591 -0.122423 -0.002779 10
0.102840 -0.123194 -0.002744 10
0.101648 -0.122236 -0.002670 10
-1.362251 -8.148659 0.894278 10
-1.376818 -8.139710 0.895411 10
-1.391562 -8.131961 0.896673 10
-1.406414 -8.124919 0.898011 10
-1.420983 -8.116382 0.899180 10
-1.435399 -8.107085 0.900263 10
-1.450088 -8.099475 0.901530 10
-1.465201 -8.094283 0.903064 10
-1.481437 -8.087322 0.904592 10
-1.496197 -8.080362 0.905925 10
-1.511079 -8.074107 0.907336 10
-1.525984 -8.068071 0.908769 10
-1.541815 -8.059278 0.910083 10
-1.556257 -8.050989 0.911257 10
-1.570916 -8.043893 0.912565 10
-1.585213 -8.035065 0.913673 10
-1.601659 -8.029813 0.915378 10
-1.616844 -8.025557 0.917004 10
-1.631123 -8.016891 0.918124 10
-1.645181 -8.007226 0.919127 10
-1.660011 -8.001429 0.920571 10
-1.674422 -7.993659 0.921787 10
-1.688806 -7.985864 0.922997 10
-1.703639 -7.980229 0.924455 10
-1.719894 -7.974492 0.926093 10
-1.734270 -7.966858 0.927316 10
-1.748680 -7.959440 0.928563 10
-1.763603 -7.954423 0.930087 10
-1.780199 -7.943873 0.931348 10
-1.794046 -7.934193 0.932322 10
-1.808530 -7.927395 0.933632 10
-1.823493 -7.922749 0.935194 10
-1.839492 -7.916284 0.936734 10
-1.853410 -7.907228 0.937772 10
-1.867762 -7.900080 0.939034 10
-1.882090 -7.892907 0.940291 10
-1.896635 -7.886673 0.941659 10
-1.911217 -7.880655 0.943051 10
-1.925549 -7.873644 0.944323 10
-1.939508 -7.865161 0.945417 10
-1.955699 -7.854008 0.946571 10
-1.969780 -7.846195 0.947739 10
-1.982963 -7.840646 0.948988 10
-1.997560 -7.834949 0.950410 10
-2.014434 -7.826806 0.951918 10
-2.027876 -7.816724 0.952803 10
-2.041599 -7.807822 0.953828 10
-2.055995 -7.801536 0.955172 10
-2.072560 -7.797965 0.957040 10
-2.086925 -7.791623 0.958374 10
-2.100826 -7.783576 0.959498 10
-2.115026 -7.776703 0.960765 10
-2.128818 -7.768367 0.961849 10
-2.142451 -7.759529 0.962868 10
-2.156994 -7.754015 0.964299 10
-2.171922 -7.749908 0.965904 10
-2.187118 -7.741550 0.967172 10
-2.201073 -7.734043 0.968350 10
-2.215692 -7.728897 0.969823 10
-2.230510 -7.724438 0.971383 10
-2.245276 -7.714776 0.972479 10
-2.258462 -7.704782 0.973338 10
-2.272599 -7.698099 0.974613 10
-2.287076 -7.692579 0.976034 10
-2.303646 -7.684294 0.977490 10
-2.317377 -7.676340 0.978599 10
-2.331660 -7.670262 0.979946 10
-2.344897 -7.665286 0.981114 10
-2.359525 -7.660342 0.982603 10
-2.373256 -7.652526 0.983725 10
-2.387340 -7.645870 0.984994 10
-2.401404 -7.639189 0.986259 10
-2.417891 -7.630894 0.987702 10
-2.432296 -7.625339 0.989111 10
-2.446165 -7.618101 0.990295 10
-2.460090 -7.611076 0.991506 10
-3.053710 -7.353872 1.047089 10
-3.067197 -7.342679 1.047882 10
-3.078989 -7.331102 1.048415 10
-3.091908 -7.322247 1.049337 10
-3.107803 -7.320442 1.051270 10
-3.124313 -7.312919 1.052784 10
-3.138452 -7.306945 1.054114 10
-3.146699 -7.304914 1.055018 10
-3.154058 -7.304355 1.055934 10
-3.162991 -7.303900 1.057067 10
-3.168884 -7.303439 1.057798 10
-3.179291 -7.302850 1.059113 10
-3.196457 -7.296754 1.060838 10
-3.211268 -7.292227 1.062390 10
-3.224098 -7.286664 1.063590 10
-3.237987 -7.280044 1.064836 10
-3.254608 -7.272679 1.066378 10
-3.267351 -7.263516 1.067251 10
-3.279260 -7.252523 1.067853 10
-3.291545 -7.242415 1.068583 10
-3.304763 -7.231015 1.069323 10
-3.317200 -7.221315 1.070108 10
-3.330339 -7.213170 1.071122 10
-3.343673 -7.205448 1.072199 10
-3.358035 -7.196651 1.073318 11
-3.371017 -7.188205 1.074285 11
-3.385244 -7.182427 1.075650 11
-3.399572 -7.176844 1.077045 11
-3.412876 -7.162626 1.077549 10
-3.424742 -7.155146 1.078454 11
-3.441628 -7.148472 1.080091 10
-3.456978 -7.145006 1.081806 10
-3.472112 -7.141062 1.083451 10
-3.486917 -7.136419 1.084992 10
-3.506176 -7.134489 1.087358 10
-3.521418 -7.130664 1.089028 10
-3.536328 -7.126140 1.090592 10
-3.552642 -7.127543 1.092861 10
-3.569157 -7.119903 1.094365 10
-3.581500 -7.110193 1.095137 10
-3.595273 -7.103335 1.096347 10
-3.611147 -7.099172 1.096800 10
-3.626032 -7.091385 1.098064 10
-3.636831 -7.078714 1.098369 10
-3.647141 -7.065147 1.098531 10
-3.658895 -7.054424 1.099133 10
-3.673254 -7.048734 1.100518 10
-3.687720 -7.043234 1.101933 10
-3.700681 -7.034856 1.102899 10
-3.712814 -7.024921 1.103619 10
-3.728473 -7.018672 1.105127 10
-3.744412 -7.015899 1.106975 10
-3.759653 -7.011781 1.108614 10
-3.775128 -7.008066 1.110318 10
-3.794067 -7.007775 1.112779 10
-3.810378 -7.005508 1.114720 10
-3.825508 -7.001032 1.116312 10
-3.841826 -6.998693 1.118248 10
-3.859520 -6.992985 1.120071 10
-3.873325 -6.986021 1.121271 10
-3.884106 -6.973624 1.121598 10
-3.894009 -6.959698 1.121675 10
-3.904720 -6.950129 1.122240 10
-3.917962 -6.942214 1.123283 10
-3.930701 -6.933412 1.124182 10
-3.943910 -6.925448 1.125217 10
-3.958047 -6.913466 1.126022 10
-3.968380 -6.900514 1.126242 10
-3.983012 -6.895051 1.127682 10
-3.998260 -6.890628 1.129295 10
-4.014461 -6.885026 1.130930 10
-4.030079 -6.881174 1.132641 10
-4.047580 -6.880488 1.134877 10
-4.064843 -6.879334 1.137041 10
-4.081045 -6.873578 1.138663 10
-4.094773 -6.866390 1.139833 10
-4.109760 -6.861299 1.141353 10
-4.125510 -6.857448 1.143081 10
-4.140456 -6.846786 1.144109 10
-4.152471 -6.836731 1.144803 10
-4.163561 -6.825176 1.145244 10
-4.174493 -6.813393 1.145644 10
-4.184724 -6.803185 1.146090 10
-4.196902 -6.793475 1.146836 10
-4.209973 -6.785216 1.147826 10
-4.223812 -6.778191 1.149026 10
-4.239485 -6.768786 1.150259 10
-5.035988 -6.399761 1.221879 10
-5.047871 -6.389307 1.222500 10
-5.064382 -6.382387 1.224048 10
-5.081925 -6.379037 1.226045 10
-5.099320 -6.375449 1.228003 10
-5.117185 -6.372397 1.230070 10
-5.134437 -6.368529 1.231985 10
-5.149828 -6.362312 1.233449 10
-5.166462 -6.357595 1.235208 10
-5.183879 -6.353795 1.237150 10
-5.197401 -6.342907 1.237960 10
-5.209947 -6.333109 1.238737 10
-5.222161 -6.322904 1.239435 10
-5.233409 -6.311535 1.239905 10
-5.245263 -6.298644 1.240321 10
-5.254083 -6.284390 1.240219 10
-5.264138 -6.271640 1.240411 10
-5.276236 -6.261333 1.241085 10
-5.291943 -6.250820 1.242216 10
-5.306563 -6.243472 1.243481 10
-5.325827 -6.241545 1.245829 10
-5.344461 -6.238815 1.248025 10
-5.364037 -6.234896 1.250242 10
-5.383336 -6.232814 1.252582 10
-5.403781 -6.231987 1.255182 10
-5.424406 -6.231291 1.257817 10
-5.439519 -6.224211 1.259170 10
-5.453485 -6.215796 1.260255 10
-5.467277 -6.207164 1.261298 10
-5.481237 -6.198680 1.262335 10
-5.493139 -6.185685 1.262743 10
-5.503432 -6.173093 1.262979 10
-5.515676 -6.162694 1.263664 10
-5.528561 -6.153006 1.264495 10
-5.542177 -6.141941 1.265303 10
-5.554862 -6.132016 1.266087 10
-5.569525 -6.124259 1.267321 10
-5.585178 -6.117563 1.268779 10
-5.608430 -6.106134 1.270824 10
-5.633250 -6.104974 1.273971 10
-5.652488 -6.099844 1.276037 10
-5.670443 -6.091120 1.277620 10
-5.686757 -6.091367 1.279770 10
-5.703587 -6.085657 1.281468 10
-5.722111 -6.081704 1.283542 10
-5.737707 -6.076745 1.285143 10
-5.751571 -6.063487 1.285793 10
-5.764132 -6.053138 1.286524 10
-5.776675 -6.042764 1.287251 10
-5.788003 -6.031116 1.287707 10
-5.800194 -6.018241 1.288169 10
-5.812505 -6.007615 1.288843 10
-5.826518 -5.998736 1.289894 10
